 -0.1184574845909300     -0.6587433675904369      -4.955000000000000    
 -0.7365587069149444      0.6675530891086483E-01  -4.945000000000000    
  0.2287797872422818E-02  0.8035980126785375      -4.935000000000000    
  0.8596794353723763      0.7298128799789839E-01  -4.925000000000000    
  0.1573296106903374     -0.9044459041866613      -4.915000000000000    
 -0.9374940914324870     -0.2491582399383490      -4.905000000000000    
 -0.3469324832648628      0.9584429310374591      -4.895000000000000    
  0.9669733450735228      0.4491520343016626      -4.885000000000000    
  0.5543370785718125     -0.9628527422822601      -4.875000000000000    
 -0.9459506793039075     -0.6610236851463612      -4.865000000000000    
 -0.7677648762230957      0.9162489262411906      -4.855000000000000    
  0.8738476829719422      0.8731352856027341      -4.845000000000000    
  0.9757381202085251     -0.8189689376111486      -4.835000000000000    
 -0.7519575586197560      -1.074213586785522      -4.825000000000000    
  -1.167248207784432      0.6732804923833992      -4.815000000000000    
  0.5835243144239410       1.253584610018833      -4.805000000000000    
   1.332031470908498     -0.4833913119919971      -4.795000000000000    
 -0.3736942357486263      -1.401473374048987      -4.785000000000000    
  -1.460880371945185      0.2553498362351142      -4.774999999999999    
  0.1293712893992152       1.509317087122247      -4.765000000000000    
   1.545951208141651      0.3140389366021604E-02  -4.755000000000000    
  0.1410058443022571      -1.570061257363103      -4.745000000000000    
  -1.581043524368992     -0.2829776917901452      -4.734999999999999    
 -0.4277515441569607       1.578418074044813      -4.725000000000000    
   1.561833752089326      0.5739776396642791      -4.715000000000000    
  0.7202729704276605      -1.531072123732685      -4.705000000000000    
  -1.486050293917187     -0.8652337972759973      -4.694999999999999    
  -1.007448438115758       1.426822569396111      -4.685000000000000    
   1.353580935129597       1.145510214731272      -4.675000000000001    
   1.278030441878522      -1.266654329180535      -4.665000000000000    
  -1.166506711876229      -1.403651342445021      -4.655000000000000    
  -1.521058773060488       1.053733936482887      -4.645000000000000    
  0.9290594397682026       1.628994646209003      -4.635000000000000    
   1.726268937323091     -0.7933287818007145      -4.625000000000000    
 -0.6475030748656272      -1.811771168784722      -4.615000000000000    
  -1.884481267042886      0.4926513515301065      -4.605000000000000    
  0.3299419316347930       1.943479694195209      -4.595000000000001    
   1.987956761410740     -0.1606328570415239      -4.585000000000000    
  0.1393852839679769E-01  -2.017221038316360      -4.575000000000000    
  -2.030706780016265     -0.1923667684294118      -4.565000000000000    
 -0.3731901611146839       2.027980301592497      -4.555000000000000    
   2.008745238754390      0.5549032039748631      -4.545000000000000    
  0.7359695133351519      -1.972846642656549      -4.535000000000000    
  -1.920273866720238     -0.9148351090722896      -4.525000000000000    
  -1.089941952269593       1.851162213497982      -4.515000000000001    
   1.765793320136248       1.259741620556455      -4.505000000000000    
   1.422709004217006      -1.664594271683000      -4.495000000000000    
  -1.548135442376864      -1.577355905322763      -4.485000000000000    
  -1.722244422499508       1.417127075871933      -4.475000000000000    
   1.272414626246640       1.856000005095265      -4.465000000000000    
   1.977324062862420      -1.114972892237859      -4.455000000000000    
 -0.9458989876621687      -2.085006020408499      -4.445000000000000    
  -2.177934709915101      0.7664042010238630      -4.435000000000000    
  0.5778048070582611       2.255109000678319      -4.425000000000000    
   2.315647570016386     -0.3815119021435694      -4.415000000000000    
 -0.1790203441464508      -2.358797726890054      -4.405000000000000    
  -2.383943207155587     -0.2810311471585564E-01  -4.395000000000000    
 -0.2382324062086669       2.390610867672116      -4.385000000000000    
   2.378476215411940      0.4496953332198284      -4.375000000000000    
  0.6607872577849001      -2.347367717241828      -4.365000000000000    
  -2.297269846050352     -0.8697851771718074      -4.355000000000000    
  -1.074962071457563       2.228324829311846      -4.345000000000000    
   2.140833076931165       1.274601403073699      -4.335000000000000    
   1.467011646931474      -2.035252276197574      -4.325000000000000    
  -1.912195152812050      -1.650540728840734      -4.315000000000000    
  -1.823590250067263       1.772425908143870      -4.305000000000000    
   1.616855354019126       1.984629377032319      -4.295000000000000    
   2.132208277302593      -1.446534777391235      -4.285000000000000    
  -1.262648577990982      -2.264970986237429      -4.275000000000000    
  -2.381667592736214       1.066505732619421      -4.265000000000000    
  0.8595301497540125       2.481165637692059      -4.255000000000000    
   2.562460624712608     -0.6432499877943837      -4.245000000000000    
 -0.4192860192805317      -2.624685549553677      -4.234999999999999    
  -2.667119362376744      0.1893391318113380      -4.225000000000000    
 -0.4482293593821240E-01   2.689194285360185      -4.215000000000000    
   2.690501917292549      0.2813795178137872      -4.205000000000000    
  0.5184714920573246      -2.670798066481974      -4.195000000000000    
  -2.630006263549300     -0.7542161849837560      -4.185000000000000    
 -0.9867225857455725       2.568219916358327      -4.175000000000000    
   2.485703080371918       1.214106748284333      -4.165000000000000    
   1.434507254304864      -2.382889829040931      -4.154999999999999    
  -2.260382220320060      -1.646100609944895      -4.145000000000000    
  -1.847116448661213       2.118946866980196      -4.135000000000000    
   1.959510129950499       2.035852413762201      -4.125000000000000    
   2.210688595971356      -1.783151965381020      -4.115000000000000    
  -1.591098467374747      -2.370101404395543      -4.105000000000000    
  -2.512676753281129       1.384713159293507      -4.095000000000000    
   1.165487097142216       2.637122451915157      -4.085000000000000    
   2.742279690993411     -0.9350278586037321      -4.074999999999999    
 -0.6950475008791391      -2.827133525591189      -4.065000000000000    
  -2.890822262580927      0.4473495793744411      -4.055000000000001    
  0.1938153274753996       2.932645668817766      -4.045000000000000    
   2.952071925621913      0.6361089493894305E-01  -4.035000000000000    
  0.3229367700299591      -2.948743264945698      -4.025000000000000    
  -2.922480233044675     -0.5821376877192752      -4.015000000000001    
 -0.8391727839914126       2.873284538399931      -4.005000000000000    
   2.801340451954810       1.092001223553171      -3.995000000000000    
   1.338598595825795      -2.707014739386028      -3.985000000000000    
  -2.590855116967341      -1.576973291747245      -3.975000000000000    
  -1.805182728231875       2.453587234579876      -3.965000000000000    
   2.296110201422398       2.021349287709572      -3.955000000000000    
   2.223675841774302      -2.119490681911423      -3.945000000000000    
  -1.924955601027040      -2.410460730664292      -3.935000000000000    
  -2.580112074050551       1.713883509850820      -3.925000000000000    
   1.487794673212984       2.731161293362051      -3.915000000000000    
   2.862275731701541      -1.248339951981194      -3.905000000000000    
 -0.9972885627818094      -2.972270264048105      -3.895000000000000    
  -3.060117798156161      0.7365148073242571      -3.885000000000000    
  0.4679838724599716       3.124958574944213      -3.875000000000000    
   3.166108186471841     -0.1937368100180951      -3.865000000000000    
  0.8412518726948767E-01  -3.183064239513063      -3.855000000000000    
  -3.175511603325934     -0.3634570911983402      -3.845000000000000    
 -0.6420867970070636       3.143326191331280      -3.835000000000000    
   3.086577237994106      0.9178322035626550      -3.825000000000000    
   1.188518479435870      -3.005528044127928      -3.815000000000000    
  -2.900635176074682      -1.451995377168329      -3.805000000000000    
  -1.706154457127542       2.772546116554929      -3.795000000000000    
   2.622095377488532       1.948946082207836      -3.785000000000000    
   2.178396045964371      -2.450299097442350      -3.775000000000000    
  -2.258348158733326      -2.392621698878826      -3.765000000000000    
  -2.589847440951437       2.047599871214415      -3.755000000000000    
   1.819568281550592       2.768419453185341      -3.745000000000000    
   2.926819546028875      -1.575913178123507      -3.735000000000000    
  -1.318427872437347      -3.063678009383547      -3.725000000000000    
  -3.177785356150981       1.049025848219379      -3.715000000000000    
  0.7697263787688574       3.268102859737953      -3.705000000000000    
   3.333771795034412     -0.4826392220209958      -3.695000000000000    
 -0.1899485105199804      -3.374121302406190      -3.685000000000000    
  -3.388674804822533     -0.1061040393244793      -3.675000000000000    
 -0.4032364684782841       3.377154919527554      -3.665000000000000    
   3.339486817395450      0.6991443316240286      -3.655000000000000    
  0.9915187293623346      -3.275799995317739      -3.645000000000000    
  -3.186428439464303      -1.278064474184727      -3.635000000000000    
  -1.556518246299754       3.071909170033505      -3.625000000000000    
   2.932979170937660       1.824666594982720      -3.615000000000000    
   2.080363641506215      -2.770570720826127      -3.605000000000000    
  -2.585805154595163      -2.321548341617957      -3.595000000000000    
  -2.546261168223154       2.379985097264027      -3.585000000000000    
   2.154585224349221       2.752660079090046      -3.575000000000000    
   2.939035639325791      -1.911241614964691      -3.565000000000000    
  -1.651739775240713      -3.103825174665571      -3.555000000000000    
  -3.245625838654766       1.378001420701935      -3.545000000000000    
   1.092070116428800       3.363206485008494      -3.535000000000000    
   3.455518245437069     -0.7960958833278313      -3.525000000000000    
 -0.4923188876318152      -3.521703723041019      -3.515000000000000    
  -3.561104722051256      0.1830523383741674      -3.505000000000000    
 -0.1293352753989687       3.573268445910196      -3.495000000000000    
   3.557952107602219      0.4424384703085004      -3.485000000000000    
  0.7538334349048246      -3.515125908473207      -3.475000000000000    
  -3.444974354546339      -1.061096930783439      -3.465000000000000    
  -1.361825280165461       3.347895892393051      -3.455000000000000    
   3.224500859866083       1.653653290361341      -3.445000000000000    
   1.934272965407376      -3.075607760312449      -3.435000000000000    
  -2.902237882250422      -2.201451856123722      -3.425000000000000    
  -2.453050902258892       2.705608299611537      -3.415000000000000    
   2.487123300707416       2.687041623622203      -3.405000000000000    
   2.901522521850463      -2.248364306600362      -3.395000000000000    
  -1.991078351880522      -3.094734559970005      -3.385000000000000    
  -3.265075593827840       1.717165212374680      -3.375000000000000    
   1.428663275503846       3.411113637102496      -3.365000000000000    
   3.531598850479993      -1.127734259162323      -3.355000000000000    
 -0.8166468946626536      -3.625474155119279      -3.345000000000000    
  -3.691884381073110      0.4977596978346256      -3.335000000000000    
  0.1735029600448919       3.730183872526348      -3.325000000000000    
   3.739942483571058      0.1536399023051767      -3.315000000000000    
  0.4811514958301543      -3.720949910716402      -3.305000000000000    
  -3.673218321218705     -0.8064999470943818      -3.295000000000000    
  -1.127158596655959       3.596983249611342      -3.285000000000000    
   3.492702748373103       1.440625736097674      -3.275000000000000    
   1.744444233210478      -3.361054792355921      -3.265000000000000    
  -3.202932950393801      -2.036220890591602      -3.255000000000000    
  -2.313645384602009       3.019440351175996      -3.245000000000000    
   2.811881984034889       2.574508634256256      -3.235000000000000    
   2.816720453595753      -2.581755388547748      -3.225000000000000    
  -2.330739799739291      -3.038326346183248      -3.215000000000000    
  -3.237523306591033       2.060683828072581      -3.205000000000000    
   1.773591765236149       3.412674501074856      -3.195000000000000    
   3.562322707984623      -1.471608617865870      -3.185000000000000    
  -1.157003981746020      -3.685202407768650      -3.175000000000000    
  -3.780250422681615      0.8321548785024753      -3.165000000000000    
  0.4995276854457584       3.846615017320190      -3.155000000000000    
   3.883663382911053     -0.1616592967814708      -3.145000000000000    
  0.1788623390562689      -3.890987440697711      -3.135000000000000    
  -3.868407912751826     -0.5194181557849711      -3.125000000000000    
 -0.8573782249593853       3.815976621962652      -3.115000000000000    
   3.733976996731601       1.190122173509617      -3.105000000000000    
   1.515059603876831      -3.622922769905616      -3.095000000000000    
  -3.483554875631473      -1.829650356889040      -3.085000000000000    
  -2.131424458268477       3.316836561951000      -3.075000000000000    
   3.123946751032857       2.418001591544400      -3.065000000000000    
   2.687109943366490      -2.906271692781137      -3.055000000000000    
  -2.665394971101974      -2.936604271607652      -3.045000000000000    
  -3.164483052242466       2.403085935223750      -3.035000000000000    
   2.121286641055029       3.368904567731398      -3.025000000000000    
   3.548201807492141      -1.822097399512304      -3.015000000000000    
  -1.507761040015579      -3.700896059903756      -3.005000000000000    
  -3.825709085184392       1.180646007716793      -2.995000000000000    
  0.8432284225981839       3.921573769205748      -2.985000000000000    
   3.987643169905555     -0.4980732370902653      -2.975000000000000    
 -0.1478146363661701      -4.023297880256437      -2.965000000000000    
  -4.028151644688989     -0.2048641681441490      -2.955000000000000    
 -0.5572515962500493       4.002055179339331      -2.945000000000000    
   3.945098160393773      0.9066286477150767      -2.935000000000000    
   1.250289979632899      -3.857609359024001      -2.925000000000000    
  -3.740154915848148      -1.585564948356557      -2.915000000000000    
  -1.909838451706453       3.593534762373045      -2.905000000000000    
   3.418777211400361       2.220571408176187      -2.895000000000000    
   2.515320712233202      -3.217131752759071      -2.885000000000000    
  -2.990060104871385      -2.791758508405862      -2.875000000000000    
  -3.047690631700640       2.739225586446680      -2.865000000000000    
   2.466480885921593       3.281074067951444      -2.855000000000000    
   3.490033294924333      -2.173854319019469      -2.845000000000000    
  -1.863534676873376      -3.672875373340409      -2.835000000000000    
  -3.828103666338462       1.537854778503492      -2.825000000000000    
   1.199273851840363       3.954430076293167      -2.815000000000000    
   4.050785699123141     -0.8503588770510057      -2.805000000000000    
 -0.4937650343843752      -4.116329808314610      -2.795000000000000    
  -4.150457093667219      0.1322154061653210      -2.785000000000000    
 -0.2315199111836272       4.152803093180018      -2.775000000000000    
   4.123247770424475      0.5946451241619587      -2.765000000000000    
  0.9543603235303397      -4.061917204088615      -2.755000000000000    
  -3.969183371019198      -1.307883162681083      -2.745000000000000    
  -1.652470464592173       3.845662018905267      -2.735000000000000    
   3.692208639645459       1.985439588939294      -2.725000000000000    
   2.304189392384764      -3.509912569284531      -2.715000000000000    
  -3.300089255088303      -2.606220617762574      -2.705000000000000    
  -2.889155551885024       3.064270744730619      -2.695000000000000    
   2.804194466578299       3.150756796963492      -2.685000000000000    
   3.388945007127476      -2.521790383569926      -2.675000000000000    
  -2.219166616086162      -3.601815449193460      -2.665000000000000    
  -3.787653255630424       1.898593641386237      -2.655000000000000    
   1.562487188598303       3.944947247488383      -2.645000000000000    
   4.072402215915067      -1.213389958673657      -2.635000000000000    
 -0.8539523082718599      -4.168949562563352      -2.625000000000000    
  -4.233756211746876      0.4869120449267489      -2.615000000000000    
  0.1150734881846794       4.266231720419908      -2.605000000000000    
   4.266033525913510      0.2587140424908120      -2.595000000000000    
  0.6315781473916925      -4.233070285707205      -2.585000000000000    
  -4.167503278253255      -1.000645504536133      -2.575000000000000    
  -1.363064094392770       4.069745848892437      -2.565000000000000    
   3.940460900078718       1.716025318854830      -2.555000000000000    
   2.056785842359069      -3.780556440349925      -2.545000000000000    
  -3.591179221635652      -2.382688984759100      -2.535000000000000    
  -2.691185498667399       3.373706509428807      -2.525000000000000    
   3.129736045009655       2.979853568309578      -2.515000000000000    
   3.246417872642252      -2.861074273098996      -2.505000000000000    
  -2.569722922010676      -3.488767562348187      -2.495000000000000    
  -3.704973008427442       2.257864036390170      -2.485000000000000    
   1.927843574906598       3.893301189311116      -2.475000000000000    
   4.052229593697088      -1.582153696694960      -2.465000000000000    
  -1.223413870836933      -4.180458527559362      -2.455000000000000    
  -4.276921725929010      0.8543509526397330      -2.445000000000000    
  0.4777783788298129       4.340795182996170      -2.435000000000000    
   4.371504127724367     -0.9657464102352833E-01  -2.425000000000000    
  0.2863387972506499      -4.368728086433058      -2.415000000000000    
  -4.332403988523462     -0.6680199699305466      -2.405000000000000    
  -1.045529090799234       4.262727286643203      -2.395000000000000    
   4.160151077948179       1.415951273401248      -2.385000000000000    
   1.776419112346309      -4.025383228624419      -2.375000000000000    
  -3.859381519353595      -2.124134950532084      -2.365000000000000    
  -2.456392658866001       3.663346844822262      -2.355000000000000    
   3.438714515568375       2.770598758467087      -2.345000000000000    
   3.064292720072707      -3.187143725298470      -2.335000000000000    
  -2.910505261223451      -3.335166281370482      -2.325000000000000    
  -3.581081630312801       2.610867548734750      -2.315000000000000    
   2.290481134918247       3.800088310892737      -2.305000000000000    
   3.990438717506759      -1.951761727727803      -2.295000000000000    
  -1.597271919113959      -4.150602054691585      -2.285000000000000    
  -4.279276650677903       1.229701730893680      -2.275000000000000    
  0.8518481315806901       4.375400525748756      -2.265000000000000    
   4.438160129731058     -0.4665936806961723      -2.255000000000000    
 -0.7688446418059296E-01  -4.466997176982280      -2.245000000000000    
  -4.461613521853545     -0.3142925096365079      -2.235000000000000    
 -0.7039322795013279       4.421974032700335      -2.225000000000000    
   4.348307437962217       1.089035088949138      -2.215000000000000    
   1.466629553258338      -4.241105133512873      -2.205000000000000    
  -4.101117956282451      -1.833795656189003      -2.195000000000000    
  -2.187687398023652       3.929350944943516      -2.185000000000000    
   3.727056124111183       2.525554918770393      -2.175000000000000    
   2.844765924111351      -3.495723363914098      -2.165000000000000    
  -3.237069381826391      -3.142826246747043      -2.155000000000000    
  -3.417399382170872       2.953024968187392      -2.145000000000000    
   2.645720530787047       3.666324845532909      -2.135000000000000    
   3.887635205124616      -2.317470067093786      -2.125000000000000    
  -1.970753685122261      -4.079571657977959      -2.115000000000000    
  -4.240598024125386       1.608198805429188      -2.105000000000000    
   1.232560187178697       4.369413048108638      -2.095000000000000    
   4.464960909219723     -0.8466989306357813      -2.085000000000000    
 -0.4535606166517192      -4.526439855672725      -2.075000000000000    
  -4.553308892288055      0.5615275069417149E-01  -2.065000000000000    
 -0.3424783153027186       4.545292466227823      -2.055000000000000    
   4.502383110742147      0.7392708056618148      -2.045000000000000    
   1.131171107621980      -4.424842022635527      -2.035000000000000    
  -4.313197565137169      -1.515157339715845      -2.025000000000000    
  -1.888262719461867       4.168241703919109      -2.015000000000000    
   3.991024400044400       2.247598549174260      -2.005000000000000    
   2.590376641365252      -3.782845999491557      -1.995000000000000    
  -3.545247674506809      -2.913931009204587      -1.985000000000000    
  -3.215738652915174       3.279999987217577      -1.975000000000000    
   2.989089660627618       3.493439279668257      -1.965000000000000    
   3.744853802551866      -2.674704656128004      -1.955000000000000    
  -2.339217669970303      -3.968001473348858      -1.945000000000000    
  -4.161115514212644       1.985168173575943      -1.935000000000000    
   1.615243134052202       4.322657124720537      -1.925000000000000    
   4.451327753159801      -1.232256561739199      -1.915000000000000    
 -0.8391280409379536      -4.546079534160356      -1.905000000000000    
  -4.606123808820743      0.4388604081193669      -1.895000000000000    
  0.3451674877534889E-01   4.630937658191263      -1.885000000000000    
   4.620268396245022      0.3708031103691674      -1.875000000000000    
  0.7739864328526030      -4.574135984178882      -1.865000000000000    
  -4.492833343922404      -1.171931543964503      -1.855000000000000    
  -1.561571757120850       4.376924564961396      -1.845000000000000    
   4.227241014883952       1.939899070076301      -1.835000000000000    
   2.303987447409700      -4.044875380302653      -1.825000000000000    
  -3.831173680870623      -2.651015508631407      -1.815000000000000    
  -2.978288445576460       3.587725314868147      -1.805000000000000    
   3.316351210155520       3.283258998449561      -1.795000000000000    
   3.563547326874581      -3.019090169094827      -1.785000000000000    
  -2.698183510113223      -3.816959620660545      -1.775000000000000    
  -4.041505304453149       2.356058121964961      -1.765000000000000    
   1.995308059183960       4.235412701137345      -1.755000000000000    
   4.397143030567952      -1.618674818710566      -1.745000000000000    
  -1.229026448090362      -4.525402632903993      -1.735000000000000    
  -4.619153319395773      0.8293356449080289      -1.725000000000000    
  0.4226570151607204       4.677620767819409      -1.715000000000000    
   4.700300894761186     -0.1210366503120325E-01  -1.705000000000000    
  0.3991766940822814      -4.686964152508694      -1.695000000000000    
  -4.637657714285377     -0.8080259433516533      -1.685000000000000    
  -1.211299870660164       4.552705527852495      -1.675000000000000    
   4.432706233960183       1.605892413398396      -1.665000000000000    
   1.988759642545228      -4.278528962643980      -1.655000000000000    
  -4.091307036795710      -2.356943302386781      -1.645000000000000    
  -2.707593723406401       3.872429628665996      -1.635000000000000    
   3.623531430852899       3.037991930473342      -1.625000000000000    
   3.345570774442638      -3.346480418767647      -1.615000000000000    
  -3.043363796448047      -3.627934922579143      -1.605000000000000    
  -3.882879551850644       2.716472231741041      -1.595000000000000    
   2.368282500270077       4.108407598926196      -1.585000000000000    
   4.302745431699197      -2.001438670055041      -1.575000000000000    
  -1.618731970109599      -4.464356819178446      -1.565000000000000    
  -4.591955089576818       1.223079496725191      -1.555000000000000    
  0.8175019203052745       4.684513380309335      -1.545000000000000    
   4.741272898222891     -0.4051003635855042      -1.535000000000000    
  0.1096737131690018E-01  -4.761749123669411      -1.525000000000000    
  -4.745735907842244     -0.4275110443213780      -1.515000000000000    
 -0.8413325006914838       4.693307429018497      -1.505000000000000    
   4.604817989859967       1.249250287277137      -1.495000000000000    
   1.648124171744020      -4.480899654590927      -1.485000000000000    
  -4.322457741566154      -2.034879375386860      -1.475000000000000    
  -2.406530332075255       4.130664203345724      -1.465000000000000    
   3.906948942748995       2.760203789351885      -1.455000000000000    
   3.093161072527808      -3.652989129384130      -1.445000000000000    
  -3.370696596669676      -3.402819338901121      -1.435000000000000    
  -3.686771656799169       3.062203414311712      -1.425000000000000    
   2.729845745389243       3.942805753062184      -1.415000000000000    
   4.168921282662988      -2.376146110608436      -1.405000000000000    
  -2.003794194725342      -4.363345485425721      -1.395000000000000    
  -4.524547107111550       1.615626341555655      -1.385000000000000    
   1.214603894311339       4.651248475401387      -1.375000000000000    
   4.742435635455760     -0.8037905470701454      -1.365000000000000    
 -0.3863288810465078      -4.797366464600067      -1.355000000000000    
  -4.815576701219553     -0.3458373420274038E-01  -1.345000000000000    
 -0.4557196893685880       4.796883838985660      -1.335000000000000    
   4.741388853979350      0.8738459448669383      -1.325000000000000    
   1.285748910034115      -4.649475748979242      -1.315000000000000    
  -4.521808916032516      -1.688259200149325      -1.305000000000000    
  -2.078276080126837       4.359328335279717      -1.295000000000000    
   4.163242644743042       2.452791405927735      -1.285000000000000    
   2.808912878443609      -3.935020132262812      -1.275000000000000    
  -3.676377716882286      -3.143886429693571      -1.265000000000000    
  -3.455117567719649       3.389268002568557      -1.255000000000000    
   3.075864502142693       3.740191514409186      -1.245000000000000    
   3.996891979643225      -2.738545143513918      -1.235000000000000    
  -2.379874183711800      -4.223218425525975      -1.225000000000000    
  -4.417401685992094       2.002582668604273      -1.215000000000000    
   1.609547587586481       4.577917819630945      -1.205000000000000    
   4.703500087107464      -1.203769882735102      -1.195000000000000    
 -0.7883514809229026      -4.793148958933643      -1.185000000000000    
  -4.846140074459045      0.3664715251176860      -1.175000000000000    
 -0.5863801259457482E-01   4.862030088705638      -1.165000000000000    
   4.840660359911281      0.4837171487383801      -1.155000000000000    
  0.9055029459238134      -4.782158447283329      -1.145000000000000    
  -4.686937405340795      -1.320754617034252      -1.135000000000000    
  -1.726278482532450       4.555692878228895      -1.125000000000000    
   4.389398014374386       2.118952588286533      -1.115000000000000    
   2.495750793726257      -4.189296238703436      -1.105000000000000    
  -3.956891936216176      -2.853766144081781      -1.095000000000000    
  -3.190233345814657       3.693939116884875      -1.085000000000000    
   3.402428147493409       3.502550171110268      -1.075000000000000    
   3.788297625424816      -3.084570651030820      -1.065000000000000    
  -2.742782688484166      -4.045258721485138      -1.055000000000000    
  -4.271435713761143       2.379666351236206      -1.045000000000000    
   1.997989904656565       4.465065659191413      -1.035000000000000    
   4.624634182761643      -1.600666634759579      -1.025000000000000    
  -1.190732559965533      -4.748887340276450      -1.015000000000000    
  -4.836841485282089      0.7713231788648358      -1.005000000000000    
  0.3456494324959148       4.887791062414109     -0.9950000000000001    
   4.901314265398771      0.8302693417501569E-01 -0.9850000000000001    
  0.5114184220821266      -4.877276514362809     -0.9750000000000001    
  -4.815831723906292     -0.9362370463818210     -0.9650000000000001    
  -1.354219628637495       4.717421350421533     -0.9550000000000001    
   4.582771224274043       1.762152917872279     -0.9450000000000001    
   2.156898346698463      -4.412886189560007     -0.9350000000000001    
  -4.209042591095982      -2.535416231378985     -0.9250000000000000    
  -2.894789228844834       3.972778664935152     -0.9150000000000000    
   3.705882904937678       3.232244869265119     -0.9050000000000000    
   3.545176989803870      -3.410380493576219     -0.8950000000000000    
  -3.088517900178363      -3.831165903517861     -0.8850000000000000    
  -4.087997147013088       2.742745764013291     -0.8750000000000000    
   2.375700192945337       4.313678661332979     -0.8650000000000000    
   4.506456272528409      -1.990182620713325     -0.8550000000000001    
  -1.589138377083582      -4.664827351411857     -0.8450000000000001    
  -4.787552545943486       1.175634135192597     -0.8350000000000001    
  0.7528344091517359       4.873665494512027     -0.8250000000000001    
   4.922480443889112     -0.3239772824277075     -0.8150000000000001    
  0.1076504464119623      -4.933597711750250     -0.8050000000000000    
  -4.906906950255527     -0.5387385094217867     -0.7950000000000000    
 -0.9659786121216420       4.842588184114311     -0.7850000000000000    
   4.741110613717197       1.386089877496457     -0.7750000000000000    
   1.795844095037846      -4.603229191156758     -0.7650000000000000    
  -4.429978994142375      -2.192090580121478     -0.7550000000000000    
  -2.571780451871646       4.222667439826498     -0.7450000000000000    
   3.982864397240189       2.931990142070151     -0.7350000000000000    
   3.269943953456043      -3.712390273295126     -0.7250000000000000    
  -3.413302162973670      -3.583035493019748     -0.7150000000000000    
  -3.868847814456088       3.087878169322480     -0.7050000000000000    
   2.738600013047239       4.125172113807817     -0.6950000000000001    
   4.350024833418690      -2.368134064752395     -0.6850000000000001    
  -1.979310945134652      -4.541663041493741     -0.6750000000000000    
  -4.698597967816947       1.575103849537057     -0.6650000000000000    
   1.158605763223484       4.819606590316820     -0.6550000000000000    
   4.903741182167031     -0.7330057423506943     -0.6450000000000000    
 -0.3015644429295037      -4.950336744784199     -0.6350000000000000    
  -4.959016268358415     -0.1324109140387489     -0.6250000000000000    
 -0.5655919486384026       4.929693778282321     -0.6150000000000000    
   4.862575142898828      0.9946547037351399     -0.6050000000000000    
   1.416305205263346      -4.758156635246885     -0.5950000000000000    
  -4.617221258802341      -1.827304804148373     -0.5850000000000001    
  -2.224495104483902       4.440832864466659     -0.5750000000000001    
   4.230328103100035       2.604822285708192     -0.5650000000000001    
   2.965360631092381      -3.987306274612898     -0.5550000000000000    
  -3.713617150884254      -3.303335080892993     -0.5450000000000000    
  -3.616142635980142       3.411346865425236     -0.5350000000000000    
   3.082801977674121       3.901372446517831     -0.5250000000000000    
   4.156824430371263      -2.730491833913558     -0.5150000000000000    
  -2.357109360006094      -4.380526277169407     -0.5050000000000000    
  -4.570748706356669       1.965510433281603     -0.4950000000000000    
   1.558691991934620       4.726018860973672     -0.4850000000000000    
   4.845131733243352      -1.139769050079126     -0.4750000000000000    
 -0.7119507951295472      -4.927159533170649     -0.4650000000000000    
  -4.971458927203835      0.2785159512941666     -0.4550000000000000    
 -0.1572124012738036       4.977676090394565     -0.4450000000000000    
   4.945749532343505      0.5918923578861375     -0.4349999999999999    
   1.022188874718141      -4.875910674366632     -0.4250000000000000    
  -4.768682172655245      -1.444799410368113     -0.4150000000000000    
  -1.856479326038773       4.624873999579948     -0.4050000000000000    
   4.445577312583359       2.254066848574841     -0.3950000000000000    
   2.634507403914465      -4.232156157175663     -0.3850000000000000    
  -3.986237067262039      -2.994877133303826     -0.3750000000000000    
  -3.332405410861839       3.709696642268574     -0.3650000000000000    
   3.404647196154254       3.644496188737063     -0.3550000000000000    
   3.928748005083393      -3.073420588294622     -0.3450000000000000    
  -2.718550360272815      -4.182972500347158     -0.3350000000000000    
  -4.405211298817671       2.342752315710974     -0.3250000000000000    
   1.948903692318148       4.593751124959720     -0.3150000000000000    
   4.747137037624658      -1.540021086223233     -0.3050000000000000    
  -1.119237298324404      -4.864183679718467     -0.2950000000000000    
  -4.943984456182514      0.6897772807404473     -0.2850000000000000    
  0.2549333684284816       4.985918569096542     -0.2750000000000000    
   4.989655855218851      0.1819600134102023     -0.2650000000000000    
  0.6175519714338952      -4.955159388211252     -0.2550000000000000    
  -4.882685825023000      -1.048500898482907     -0.2450000000000000    
  -1.471500161777354       4.772783493297094     -0.2350000000000000    
   4.626288234079420       1.883303527108237     -0.2250000000000000    
   2.280750123146001      -4.444317031419958     -0.2150000000000000    
  -4.228259477526018      -2.660788753492356     -0.2050000000000000    
  -3.020501369101908       3.979767138822760     -0.1950000000000000    
   3.700740904472782       3.357125520138021     -0.1850000000000000    
   3.668075614169937      -3.393316414472992     -0.1750000000000000    
  -3.059847679271114      -3.950962816790255     -0.1650000000000000    
  -4.203613441178034       2.702889016801720     -0.1550000000000000    
   2.325175445830928       4.424085684760745     -0.1450000000000000    
   4.610684583850238      -1.929601686422810     -0.1350000000000000    
  -1.519199929091716      -4.761975070855340     -0.1250000000000000    
  -4.876793033284066       1.097116543723593     -0.1150000000000000    
  0.6665879075355434       4.954254289146590     -0.1050000000000000    
   4.993761409422438     -0.2309155381589126     -0.9500000000000000E-01
  0.2065592767003002      -4.995008334848806     -0.8500000000000001E-01
  -4.957982751285559     -0.6424811576652496     -0.7500000000000000E-01
  -1.073506422414304       4.882966205190781     -0.6500000000000000E-01
   4.770531958161386       1.496328786116506     -0.5499999999999999E-01
   1.907704775637239      -4.621540596923376     -0.4500000000000000E-01
  -4.437133432461934      -2.304478661764646     -0.3500000000000000E-01
  -2.683606717418657       4.218723739026467     -0.2500000000000000E-01
   3.967985900401407       3.042180614989128     -0.1500000000000000E-01
   3.377449782581458      -3.686842546968945     -0.5000000000000000E-02
  -3.377449782581458      -3.686842546968945      0.5000000000000000E-02
  -3.967985900401407       3.042180614989128      0.1500000000000000E-01
   2.683606717418657       4.218723739026467      0.2500000000000000E-01
   4.437133432461934      -2.304478661764646      0.3500000000000000E-01
  -1.907704775637239      -4.621540596923376      0.4500000000000000E-01
  -4.770531958161386       1.496328786116506      0.5499999999999999E-01
   1.073506422414304       4.882966205190781      0.6500000000000000E-01
   4.957982751285559     -0.6424811576652496      0.7500000000000000E-01
 -0.2065592767003002      -4.995008334848806      0.8500000000000001E-01
  -4.993761409422438     -0.2309155381589126      0.9500000000000000E-01
 -0.6665879075355434       4.954254289146590      0.1050000000000000    
   4.876793033284066       1.097116543723593      0.1150000000000000    
   1.519199929091716      -4.761975070855340      0.1250000000000000    
  -4.610684583850238      -1.929601686422810      0.1350000000000000    
  -2.325175445830928       4.424085684760745      0.1450000000000000    
   4.203613441178034       2.702889016801720      0.1550000000000000    
   3.059847679271114      -3.950962816790255      0.1650000000000000    
  -3.668075614169937      -3.393316414472992      0.1750000000000000    
  -3.700740904472782       3.357125520138021      0.1850000000000000    
   3.020501369101908       3.979767138822760      0.1950000000000000    
   4.228259477526018      -2.660788753492356      0.2050000000000000    
  -2.280750123146001      -4.444317031419958      0.2150000000000000    
  -4.626288234079420       1.883303527108237      0.2250000000000000    
   1.471500161777354       4.772783493297094      0.2350000000000000    
   4.882685825023000      -1.048500898482907      0.2450000000000000    
 -0.6175519714338952      -4.955159388211252      0.2550000000000000    
  -4.989655855218851      0.1819600134102023      0.2650000000000000    
 -0.2549333684284816       4.985918569096542      0.2750000000000000    
   4.943984456182514      0.6897772807404473      0.2850000000000000    
   1.119237298324404      -4.864183679718467      0.2950000000000000    
  -4.747137037624658      -1.540021086223233      0.3050000000000000    
  -1.948903692318148       4.593751124959720      0.3150000000000000    
   4.405211298817671       2.342752315710974      0.3250000000000000    
   2.718550360272815      -4.182972500347158      0.3350000000000000    
  -3.928748005083393      -3.073420588294622      0.3450000000000000    
  -3.404647196154254       3.644496188737063      0.3550000000000000    
   3.332405410861839       3.709696642268574      0.3650000000000000    
   3.986237067262039      -2.994877133303826      0.3750000000000000    
  -2.634507403914465      -4.232156157175663      0.3850000000000000    
  -4.445577312583359       2.254066848574841      0.3950000000000000    
   1.856479326038773       4.624873999579948      0.4050000000000000    
   4.768682172655245      -1.444799410368113      0.4150000000000000    
  -1.022188874718141      -4.875910674366632      0.4250000000000000    
  -4.945749532343505      0.5918923578861375      0.4349999999999999    
  0.1572124012738036       4.977676090394565      0.4450000000000000    
   4.971458927203835      0.2785159512941666      0.4550000000000000    
  0.7119507951295472      -4.927159533170649      0.4650000000000000    
  -4.845131733243352      -1.139769050079126      0.4750000000000000    
  -1.558691991934620       4.726018860973672      0.4850000000000000    
   4.570748706356669       1.965510433281603      0.4950000000000000    
   2.357109360006094      -4.380526277169407      0.5050000000000000    
  -4.156824430371263      -2.730491833913558      0.5150000000000000    
  -3.082801977674121       3.901372446517831      0.5250000000000000    
   3.616142635980142       3.411346865425236      0.5350000000000000    
   3.713617150884254      -3.303335080892993      0.5450000000000000    
  -2.965360631092381      -3.987306274612898      0.5550000000000000    
  -4.230328103100035       2.604822285708192      0.5650000000000001    
   2.224495104483902       4.440832864466659      0.5750000000000001    
   4.617221258802341      -1.827304804148373      0.5850000000000001    
  -1.416305205263346      -4.758156635246885      0.5950000000000000    
  -4.862575142898828      0.9946547037351399      0.6050000000000000    
  0.5655919486384026       4.929693778282321      0.6150000000000000    
   4.959016268358415     -0.1324109140387489      0.6250000000000000    
  0.3015644429295037      -4.950336744784199      0.6350000000000000    
  -4.903741182167031     -0.7330057423506943      0.6450000000000000    
  -1.158605763223484       4.819606590316820      0.6550000000000000    
   4.698597967816947       1.575103849537057      0.6650000000000000    
   1.979310945134652      -4.541663041493741      0.6750000000000000    
  -4.350024833418690      -2.368134064752395      0.6850000000000001    
  -2.738600013047239       4.125172113807817      0.6950000000000001    
   3.868847814456088       3.087878169322480      0.7050000000000000    
   3.413302162973670      -3.583035493019748      0.7150000000000000    
  -3.269943953456043      -3.712390273295126      0.7250000000000000    
  -3.982864397240189       2.931990142070151      0.7350000000000000    
   2.571780451871646       4.222667439826498      0.7450000000000000    
   4.429978994142375      -2.192090580121478      0.7550000000000000    
  -1.795844095037846      -4.603229191156758      0.7650000000000000    
  -4.741110613717197       1.386089877496457      0.7750000000000000    
  0.9659786121216420       4.842588184114311      0.7850000000000000    
   4.906906950255527     -0.5387385094217867      0.7950000000000000    
 -0.1076504464119623      -4.933597711750250      0.8050000000000000    
  -4.922480443889112     -0.3239772824277075      0.8150000000000001    
 -0.7528344091517359       4.873665494512027      0.8250000000000001    
   4.787552545943486       1.175634135192597      0.8350000000000001    
   1.589138377083582      -4.664827351411857      0.8450000000000001    
  -4.506456272528409      -1.990182620713325      0.8550000000000001    
  -2.375700192945337       4.313678661332979      0.8650000000000000    
   4.087997147013088       2.742745764013291      0.8750000000000000    
   3.088517900178363      -3.831165903517861      0.8850000000000000    
  -3.545176989803870      -3.410380493576219      0.8950000000000000    
  -3.705882904937678       3.232244869265119      0.9050000000000000    
   2.894789228844834       3.972778664935152      0.9150000000000000    
   4.209042591095982      -2.535416231378985      0.9250000000000000    
  -2.156898346698463      -4.412886189560007      0.9350000000000001    
  -4.582771224274043       1.762152917872279      0.9450000000000001    
   1.354219628637495       4.717421350421533      0.9550000000000001    
   4.815831723906292     -0.9362370463818210      0.9650000000000001    
 -0.5114184220821266      -4.877276514362809      0.9750000000000001    
  -4.901314265398771      0.8302693417501569E-01  0.9850000000000001    
 -0.3456494324959148       4.887791062414109      0.9950000000000001    
   4.836841485282089      0.7713231788648358       1.005000000000000    
   1.190732559965533      -4.748887340276450       1.015000000000000    
  -4.624634182761643      -1.600666634759579       1.025000000000000    
  -1.997989904656565       4.465065659191413       1.035000000000000    
   4.271435713761143       2.379666351236206       1.045000000000000    
   2.742782688484166      -4.045258721485138       1.055000000000000    
  -3.788297625424816      -3.084570651030820       1.065000000000000    
  -3.402428147493409       3.502550171110268       1.075000000000000    
   3.190233345814657       3.693939116884875       1.085000000000000    
   3.956891936216176      -2.853766144081781       1.095000000000000    
  -2.495750793726257      -4.189296238703436       1.105000000000000    
  -4.389398014374386       2.118952588286533       1.115000000000000    
   1.726278482532450       4.555692878228895       1.125000000000000    
   4.686937405340795      -1.320754617034252       1.135000000000000    
 -0.9055029459238134      -4.782158447283329       1.145000000000000    
  -4.840660359911281      0.4837171487383801       1.155000000000000    
  0.5863801259457482E-01   4.862030088705638       1.165000000000000    
   4.846140074459045      0.3664715251176860       1.175000000000000    
  0.7883514809229026      -4.793148958933643       1.185000000000000    
  -4.703500087107464      -1.203769882735102       1.195000000000000    
  -1.609547587586481       4.577917819630945       1.205000000000000    
   4.417401685992094       2.002582668604273       1.215000000000000    
   2.379874183711800      -4.223218425525975       1.225000000000000    
  -3.996891979643225      -2.738545143513918       1.235000000000000    
  -3.075864502142693       3.740191514409186       1.245000000000000    
   3.455117567719649       3.389268002568557       1.255000000000000    
   3.676377716882286      -3.143886429693571       1.265000000000000    
  -2.808912878443609      -3.935020132262812       1.275000000000000    
  -4.163242644743042       2.452791405927735       1.285000000000000    
   2.078276080126837       4.359328335279717       1.295000000000000    
   4.521808916032516      -1.688259200149325       1.305000000000000    
  -1.285748910034115      -4.649475748979242       1.315000000000000    
  -4.741388853979350      0.8738459448669383       1.325000000000000    
  0.4557196893685880       4.796883838985660       1.335000000000000    
   4.815576701219553     -0.3458373420274038E-01   1.345000000000000    
  0.3863288810465078      -4.797366464600067       1.355000000000000    
  -4.742435635455760     -0.8037905470701454       1.365000000000000    
  -1.214603894311339       4.651248475401387       1.375000000000000    
   4.524547107111550       1.615626341555655       1.385000000000000    
   2.003794194725342      -4.363345485425721       1.395000000000000    
  -4.168921282662988      -2.376146110608436       1.405000000000000    
  -2.729845745389243       3.942805753062184       1.415000000000000    
   3.686771656799169       3.062203414311712       1.425000000000000    
   3.370696596669676      -3.402819338901121       1.435000000000000    
  -3.093161072527808      -3.652989129384130       1.445000000000000    
  -3.906948942748995       2.760203789351885       1.455000000000000    
   2.406530332075255       4.130664203345724       1.465000000000000    
   4.322457741566154      -2.034879375386860       1.475000000000000    
  -1.648124171744020      -4.480899654590927       1.485000000000000    
  -4.604817989859967       1.249250287277137       1.495000000000000    
  0.8413325006914838       4.693307429018497       1.505000000000000    
   4.745735907842244     -0.4275110443213780       1.515000000000000    
 -0.1096737131690018E-01  -4.761749123669411       1.525000000000000    
  -4.741272898222891     -0.4051003635855042       1.535000000000000    
 -0.8175019203052745       4.684513380309335       1.545000000000000    
   4.591955089576818       1.223079496725191       1.555000000000000    
   1.618731970109599      -4.464356819178446       1.565000000000000    
  -4.302745431699197      -2.001438670055041       1.575000000000000    
  -2.368282500270077       4.108407598926196       1.585000000000000    
   3.882879551850644       2.716472231741041       1.595000000000000    
   3.043363796448047      -3.627934922579143       1.605000000000000    
